-0.551377   2.05057   -0.823255
0.681859   0.83365   -2.0918
-0.272641   -0.404566   -2.19243
0.966839   2.27984   -1.38679
2.32438   -2.26317   1.70634
-0.997536   1.86705   -2.26142
1.13652   -2.47307   -2.38546
-2.05225   0.247899   -2.22592
2.38797   -1.39437   0.742251
2.49368   -1.4351   0.391781
-0.94999   2.54794   1.68487
-1.61143   -1.55995   2.52406
1.53394   -0.457015   1.9853
1.25969   1.99051   -2.22238
0.454301   1.44805   1.48166
-0.599066   1.61414   -1.00262
1.23772   -0.82194   2.19533
-1.13628   -0.466601   -2.48889
-0.154827   -0.311254   -2.54305
-0.853438   -1.25536   -0.90189
2.15683   -1.95708   -2.34574
0.294024   2.4078   2.18202
-2.04874   0.0440974   -0.924463
2.56029   1.13666   1.08773
-0.0210641   -2.30864   -2.49314
-1.03365   -0.15434   1.30799
1.97768   -2.16711   2.37341
-0.98034   -1.14441   -0.860967
-1.04894   0.427897   1.71857
0.678121   0.379785   1.10048
-0.162472   -1.3283   1.51268
1.11289   -0.973248   1.48578
-1.27577   -2.30337   -1.47104
-0.203347   1.43178   0.105739
-2.3185   -0.00657998   1.47089
0.374638   -1.57206   -2.24723
1.3726   -1.55846   1.79805
2.29404   1.37888   -0.882598
1.59036   0.517824   -1.32448
-1.54572   1.10853   -1.48433
-2.49699   -2.47703   0.12136
-1.53874   -1.66342   0.0159332
1.11727   -2.55304   -0.517182
-1.66288   -0.697182   -0.67954
-0.523808   1.84241   -1.27702
-0.87227   -1.26168   2.48995
2.06872   1.63149   0.696354
-2.29443   -2.11143   0.13427
2.13801   -2.55054   2.52136
-2.33685   1.24995   1.25501
-1.08149   0.635426   0.245637
-1.43301   -1.47675   -1.5579
1.54455   -0.742933   1.00792
-2.17025   1.9332   -2.00831
-1.0149   0.42867   -0.629645
-1.60026   0.81209   -0.633315
0.00821881   -0.302275   1.78326
2.26104   -2.1885   -1.44491
1.56513   -0.745442   2.55626
-1.65058   -2.2267   -2.14113
1.52721   0.632266   -1.01873
2.17628   -0.527847   -2.42458
-2.40696   -2.2185   1.63484
2.06634   2.35183   2.23216
2.13782   1.93497   1.71233
2.09099   0.682835   2.02199
-1.73955   2.41335   1.31055
2.3281   0.441254   0.0904844
1.20139   2.09519   1.04169
-2.51689   0.571374   2.20251
2.10536   -1.68921   -0.233402
0.651442   0.575606   0.264014
2.117   0.877842   1.45676
1.3403   -2.41258   0.0630507
1.62378   -1.34628   0.130598
1.3488   -1.92206   0.857264
-0.588995   -2.45463   0.676599
-0.0805273   -0.78903   -2.2854
-2.37325   0.74868   -1.48927
-0.836219   0.803194   1.97493
1.29391   -1.93032   1.4806
-2.43   0.18526   2.23599
0.643063   0.394079   1.77929
-2.19861   1.10393   1.97359
-1.19821   0.567735   -1.15707
0.616241   -1.69428   1.30609
1.89518   1.60576   -0.968676
-1.07258   2.19749   1.67633
-1.75151   0.178522   2.4073
-1.83375   -2.22575   -1.50015
-0.86477   2.3965   -0.433971
1.32117   -1.80023   0.16581
2.45602   -1.86421   2.14311
1.15928   -0.464823   -1.03065
-1.74935   1.05657   -2.45722
1.30641   0.909617   1.99604
-1.141   1.52107   0.281835
-2.47598   1.37872   1.68843
1.12631   0.453011   -0.355562
1.58951   -0.777507   -0.937868
-2.21524   -1.18201   -1.60116
-0.934239   -1.37736   0.381957
-1.33238   1.87581   -1.73883
-1.85308   0.200023   -0.469136
1.21658   -2.28311   0.301546
2.2858   -0.107849   -0.622085
-1.2142   1.28115   -1.02143
-2.28214   2.14139   -1.17919
