1.8217   -0.068961   -1.07238
-2.07815   1.6404   -1.41548
-0.104893   2.23936   1.74503
-1.58057   1.83207   -1.52992
-1.95124   -0.389927   -0.80386
-1.91265   -2.36469   1.53675
-0.170717   2.02448   -0.0562705
0.360701   0.234591   0.274886
1.29382   1.98755   0.627422
0.988421   -0.528405   -0.334381
0.602109   0.56518   -0.614391
0.900464   0.609438   -2.07632
-0.384363   -0.875733   -1.11735
1.93222   1.08202   -0.893371
-2.22312   -0.959283   -2.03872
-0.786407   -2.48619   0.668056
2.45105   2.1351   1.32973
2.11865   2.458   -0.20052
-0.483651   -0.74588   -1.54263
-1.43496   0.74147   0.679888
-1.16869   -1.75546   1.20379
-2.4225   1.45366   1.27783
2.48378   1.7198   2.16419
-1.78038   -2.22579   2.2591
2.42492   -2.29148   -0.535017
-1.90031   -1.18951   -1.78975
2.2327   0.162649   1.03145
1.95525   1.70452   1.723
-2.31164   1.169   -1.19612
0.609966   -0.123685   -0.0251929
-0.0362412   -0.493403   0.682945
-2.14018   -2.39816   0.32679
-0.650511   -2.10641   1.25487
2.46878   1.15427   -0.359152
-0.160884   0.586291   1.00885
-0.467221   -0.00963133   -0.389078
-0.99645   -1.27679   -1.27421
1.98554   2.4112   -0.146577
2.0487   0.323433   0.217388
1.13348   -1.45712   -1.55844
1.82287   -2.26178   -1.68563
0.0508625   2.11688   2.34446
-0.307764   -0.36375   1.81079
0.953962   -1.93523   1.19304
-1.93726   0.819575   -0.727716
0.370267   -2.12111   0.965897
1.8142   -0.687883   1.47121
-2.16414   -1.3397   -0.915262
-2.08118   -2.21258   0.693402
-1.64503   2.14567   -1.99487
-2.27335   -2.06333   1.48199
-0.613298   0.951052   -2.38285
0.0138541   -0.741508   -1.92021
-0.13718   -2.30694   2.05736
-0.39603   -2.32772   0.572831
-0.785215   1.89358   1.91161
0.428027   1.86583   2.33988
-0.953007   2.1472   2.01728
-1.85128   -1.44208   -0.665689
-1.60239   0.862767   1.64304
-1.81869   -1.63739   1.08113
-0.920013   1.48442   0.42941
-2.54869   -1.12812   0.127957
1.33197   -0.718411   -2.20888
-2.18737   -0.496319   -0.891124
-1.52375   0.691663   1.68032
2.32637   -0.71016   1.91044
-0.162575   2.27501   2.12249
0.663699   0.153665   2.5634
-1.9544   -0.306488   -2.03217
-0.537744   -0.24322   1.15608
0.958937   1.74633   -0.210174
0.963613   -2.04483   0.404516
0.555817   -0.736664   0.461343
1.90023   1.88983   1.60675
0.49755   0.752694   1.23413
1.9532   -1.75632   0.86417
1.05915   -0.137344   0.875278
-1.46447   2.14761   -1.37576
-2.31382   0.828816   -0.549072
0.430657   1.4949   1.98892
1.6929   -1.33859   -2.06214
0.956932   0.53814   -0.721648
-2.00855   -0.92662   -2.51765
-0.617703   -2.46356   -1.41976
-0.645549   -0.110625   1.80392
-0.820516   1.43365   0.723739
1.01463   0.898077   1.3805
0.640677   -0.723496   -1.84828
1.57852   -1.83881   -0.117369
2.53286   0.5603   1.44749
0.231449   1.6984   2.15404
-2.50027   -1.25837   -0.658404
-0.113527   1.9355   1.23714
1.81815   -1.43079   -1.58903
0.858271   -0.312472   -1.43329
-0.357512   -1.54328   -1.20342
-2.53623   1.64489   -2.12064
1.39123   -1.08696   0.705665
-0.841229   -1.16371   -1.17644
0.815218   -0.742976   0.677147
0.749359   1.65145   0.849233
0.333444   0.629146   -1.91876
2.35564   0.825256   0.00635204
1.00598   -1.16689   1.60123
-0.510196   -0.829403   1.19291
-0.944748   -0.997834   -0.788763
-0.350615   -0.466452   1.02457
